# .PCD v0.7 - Point Cloud Data file format
VERSION 0.7
FIELDS x y z
SIZE 4 4 4
TYPE F F F
COUNT 1 1 1
WIDTH 1517
HEIGHT 1
VIEWPOINT 0 0 0 1 0 0 0
POINTS 1517
DATA ascii
-0.70054042 -0.50900424 6.6636453
-1.9207654 -1.3954272 6.6637535
-1.9206349 -1.3955579 6.6637344
-1.9208524 -1.3957701 6.6636286
-1.9206905 -1.3957367 6.6636915
-1.9213071 -1.3960886 6.6633587
-1.9211627 -1.3958707 6.663486
-2.9086518 -2.1132116 5.776556
-2.9080923 -2.113193 5.776897
-2.9085486 -2.112988 5.7767606
-2.907897 -2.1124535 5.7775683
-2.9081371 -2.1132545 5.7770262
-2.9081676 -2.1131496 5.7769403
-3.2849991 -2.3869994 4.3431091
-3.2851408 -2.3866251 4.3429184
-3.2851555 -2.3868835 4.3427558
-3.2854066 -2.3868229 4.3427753
-3.2851534 -2.3871291 4.3425941
-3.2853031 -2.3869803 4.3427916
-2.907918 -2.1130726 2.9091775
-2.9084666 -2.1129668 2.9083591
-2.90799 -2.1129413 2.9093282
-2.908134 -2.1131065 2.9089029
-2.9080195 -2.1132131 2.9089568
-2.9079864 -2.1131437 2.9087663
-1.2730374 -0.9250226 5.6909289
-1.2725471 -0.9247309 5.6912231
-1.2724895 -0.92466456 5.6911516
-1.2722654 -0.92454404 5.6912241
-1.2728188 -0.92491919 5.6909804
-1.272561 -0.92472255 5.6911969
-2.4926059 -1.8109304 5.6912766
-2.4924581 -1.8112274 5.6912341
-2.4927454 -1.8110149 5.6911564
-2.4929087 -1.8112787 5.6909442
-2.4922802 -1.8106592 5.691504
-2.4925439 -1.810776 5.6913919
-3.4796886 -2.5285954 4.804502
-3.4799449 -2.5287333 4.8039994
-3.4793687 -2.528239 4.8050728
-3.4797015 -2.5284104 4.8045988
-3.4799387 -2.5285873 4.8041596
-3.479239 -2.5281024 4.8053212
-3.8564553 -2.8022001 3.371119
-3.856689 -2.8019347 3.3705125
-3.8565738 -2.802527 3.3704457
-3.8565958 -2.8023319 3.3706505
-3.8565948 -2.8022275 3.3703253
-3.856837 -2.8016255 3.3711433
-3.4799316 -2.528168 1.9357574
-3.4801037 -2.5279737 1.9369421
-3.4797907 -2.5282073 1.936051
-3.4800651 -2.5279446 1.936808
-3.4795589 -2.5283928 1.9363674
-3.4796379 -2.5286047 1.9358783
-2.4928248 -1.8115238 1.0499327
-2.4928122 -1.8114339 1.0500841
-2.4927866 -1.8114712 1.0501988
-2.4929063 -1.8114606 1.0500832
-2.4929435 -1.8115102 1.0501407
-2.492861 -1.8115138 1.0502419
-2.4929967 -1.8112843 4.4887967
-2.4929726 -1.8115832 4.4886456
-2.4930983 -1.8112578 4.4888
-2.4924088 -1.8109958 4.4893699
-2.4924138 -1.8109758 4.4894209
-2.492485 -1.8110511 4.4892721
-3.4795566 -2.5285022 3.6027343
-3.4795666 -2.5282006 3.6031196
-3.4795566 -2.5281191 3.6030803
-3.4796622 -2.5286162 3.6025033
-3.4793549 -2.5284088 3.6030293
-3.4795563 -2.5283387 3.6029196
-3.8565152 -2.8024185 2.1689658
-3.8566253 -2.8023486 2.1686723
-3.8564789 -2.8024282 2.1690555
-3.8565056 -2.802424 2.1688325
-3.8565161 -2.8024867 2.1687524
-3.8565922 -2.8025472 2.1678267
-3.4798181 -2.5285661 0.7346108
-3.4797139 -2.5284352 0.73455888
-3.4798205 -2.528585 0.73485339
-3.479672 -2.5286555 0.73459482
-3.4796 -2.5286016 0.73415387
-3.4798198 -2.5285387 0.73491621
1.5106926 1.0978087 2.347795
1.5107745 1.0977173 2.3474996
1.5109078 1.0975133 2.3476553
1.5107546 1.0974709 2.3475606
1.5106525 1.0977499 2.3478196
1.5108129 1.0977575 2.3476205
1.8876243 1.3717102 3.781697
1.8878844 1.3714669 3.7817264
1.8877126 1.3716013 3.7818637
1.8875599 1.3714929 3.7820294
1.8876265 1.3714938 3.781991
1.8876476 1.3715682 3.7819924
1.5105274 1.0976112 5.2161603
1.5108337 1.0978056 5.2158084
1.5106081 1.0976437 5.2159133
1.5106815 1.097409 5.2161055
1.5108721 1.0979173 5.2156787
1.5107974 1.0978301 5.2157626
0.5234763 0.38037878 6.102365
0.52371925 0.38053906 6.102283
0.52341962 0.38034287 6.1024199
0.52404881 0.38077518 6.1021991
0.5240441 0.38068178 6.1022177
0.52334124 0.38026527 6.1024294
-0.69619417 -0.50588191 6.1023698
-0.69582522 -0.50561279 6.1023855
-0.6962806 -0.50592285 6.1022992
-0.69635892 -0.50602758 6.102334
-0.69631582 -0.50591892 6.1023149
-0.69598448 -0.50576544 6.1023602
-1.6830295 -1.2228453 5.2161446
-1.6832502 -1.2231075 5.2160082
-1.6831514 -1.223034 5.2160268
-1.6832684 -1.2230958 5.2159691
-1.683056 -1.2229377 5.2161636
-1.6831387 -1.2230812 5.2160931
0.96264422 0.69952959 4.1534657
0.96290636 0.69948661 4.1532116
0.96260029 0.69941193 4.1533456
0.96278512 0.6995827 4.1533785
0.9627431 0.69959271 4.153234
0.9628036 0.69956803 4.1534815
0.58584237 0.42571253 5.5873566
0.58609319 0.42585605 5.5871854
0.58595049 0.42576548 5.5872936
0.58532697 0.4252395 5.587492
0.58528745 0.42531517 5.5876193
0.58621699 0.42594975 5.5872474
-0.40090084 -0.29132196 6.4737754
-0.40153748 -0.29177818 6.4738598
-0.4012036 -0.29155073 6.4737844
-0.40153721 -0.29177719 6.473753
-0.40084574 -0.29125991 6.4737282
-0.4015736 -0.29182017 6.473815
-1.6211771 -1.1777415 6.4737759
-1.6212556 -1.1781355 6.4737053
-1.6211427 -1.1777687 6.4738288
-1.6214232 -1.1778362 6.473722
-1.6203943 -1.1772484 6.4740133
-1.6212263 -1.1778178 6.473774
-2.6081326 -1.8952277 5.5873528
-2.6081045 -1.8948714 5.5874195
-2.6083353 -1.8954135 5.5870543
-2.6080728 -1.895267 5.5872416
-2.6075127 -1.8948355 5.5878005
-2.6087449 -1.8952256 5.5868783
-2.9850428 -2.1689429 4.1534977
-2.9850304 -2.1685643 4.1538005
-2.9851506 -2.168916 4.1533265
-2.9853523 -2.1692255 4.1528568
-2.9854684 -2.1689324 4.1528964
-2.985229 -2.1689045 4.1531711
-0.33887205 -0.24624734 5.216011
-0.33898354 -0.2462526 5.21596
-0.3392202 -0.24649122 5.2160473
-0.33898994 -0.24629951 5.2157803
-0.33966294 -0.24683017 5.2160921
-0.33898672 -0.24633628 5.2160926
-1.3255013 -0.96323484 6.1022401
-1.3259252 -0.96347976 6.1023121
-1.3263958 -0.96367949 6.1023293
-1.3262638 -0.96370947 6.1021914
-1.3255453 -0.96323383 6.1022916
-1.3262296 -0.96352845 6.1023045
-2.5456014 -1.8496971 6.1025333
-2.5459068 -1.850026 6.102282
-2.5462751 -1.8499719 6.1021433
-2.5461795 -1.8501748 6.1021948
-2.5461509 -1.850173 6.102139
-2.5459607 -1.8500621 6.1023107
-3.5328548 -2.567008 5.2160301
-3.5326757 -2.5670669 5.2161784
-3.5324285 -2.5668957 5.2165179
-3.5330043 -2.5670156 5.2159624
-3.5335517 -2.5673594 5.2152214
-3.5324118 -2.5669174 5.2165194
-3.9099619 -2.8410907 3.7818427
-3.9098837 -2.8410013 3.7818313
-3.9098916 -2.841156 3.7817793
-3.9097147 -2.8411412 3.7821622
-3.9097414 -2.8411095 3.7820985
-3.9097812 -2.8409977 3.7821529
-3.5329874 -2.5672159 2.3480771
-3.5331116 -2.5672579 2.3474889
-3.5328989 -2.5672908 2.3481979
-3.5331175 -2.5671964 2.3471916
-3.5329878 -2.5672371 2.347815
-3.5329161 -2.5671492 2.3476138
-1.8976972 -1.3789668 5.1299305
-1.8975606 -1.3788228 5.1299829
-1.8975476 -1.3789237 5.1299677
-1.8976858 -1.3786889 5.1299553
-1.8976804 -1.3788826 5.12989
-1.8975738 -1.3785728 5.1300235
-3.1173427 -2.2644923 5.1303997
-3.1178267 -2.2656791 5.1294737
-3.1177833 -2.2653184 5.1297679
-3.1174672 -2.2653646 5.1299396
-3.1177192 -2.2655013 5.12957
-3.1180344 -2.2656057 5.1293974
-4.1043539 -2.9826131 4.2435765
-4.1045074 -2.9822505 4.2437611
-4.104548 -2.9824655 4.2434597
-4.1044292 -2.9820642 4.2440324
-4.1042581 -2.9824216 4.2438917
-4.104455 -2.9826846 4.2433844
-4.481575 -3.2561123 2.8099902
-4.4813547 -3.2565367 2.8095675
-4.481627 -3.2560549 2.8100564
-4.4813991 -3.2565928 2.8094597
-4.4820147 -3.2559402 2.8085151
-4.481286 -3.256526 2.8100924
-4.1048961 -2.982404 1.3756872
-4.1045532 -2.9827056 1.3756369
-4.1048427 -2.9821746 1.3754594
-4.1045442 -2.9826226 1.3756374
-4.1050992 -2.981951 1.3753302
-4.1048374 -2.9820294 1.3749478
-3.1180274 -2.2651353 0.48896223
-3.1176887 -2.2655463 0.48874697
-3.1179764 -2.2654755 0.48924631
-3.1179218 -2.2653778 0.48900825
-3.1180458 -2.2652378 0.4891305
-3.1176324 -2.2653828 0.4884682
-3.1176212 -2.265485 3.9277833
-3.1177042 -2.2651441 3.9278309
-3.1173272 -2.2653205 3.9280784
-3.1177325 -2.2650678 3.9279289
-3.1177628 -2.2650707 3.9278278
-3.117842 -2.264992 3.9276996
-4.1045737 -2.9824259 3.0415237
-4.104825 -2.9818738 3.0416441
-4.104517 -2.9822438 3.0417776
-4.1046109 -2.9824877 3.0413177
-4.1045661 -2.9824049 3.0415132
-4.1046429 -2.9822888 3.0415094
-4.4814544 -3.2565823 1.6078089
-4.4819655 -3.2558258 1.6067991
-4.4814506 -3.2565408 1.6068653
-4.4818149 -3.2561448 1.6076388
-4.4815087 -3.2564571 1.6069756
-4.4814854 -3.2565498 1.6081085
-3.5333006 -2.5668597 2.069133
-3.5331964 -2.5670772 2.0687716
-3.5330751 -2.5670764 2.069062
-3.5330226 -2.5673916 2.0685854
-3.5331755 -2.5667996 2.0694551
-3.53301 -2.5672514 2.0690846
-3.9100599 -2.8413172 0.63552135
-3.9100237 -2.8412693 0.63510579
-3.9104409 -2.840616 0.63493037
-3.9100244 -2.8411677 0.63457
-3.9099333 -2.8412755 0.6346426
-3.9102449 -2.8409832 0.63504899
0.72393078 0.5260579 3.2454205
0.7240712 0.52610338 3.2452147
0.7240054 0.52598482 3.2454226
0.72398663 0.52611405 3.2453508
0.7241143 0.52620423 3.2451298
0.72394735 0.5260703 3.245265
0.34705013 0.25216687 4.6794028
0.34704188 0.25213167 4.679297
0.34700853 0.25216326 4.6793075
0.34695652 0.25208071 4.6794586
0.34689578 0.25205046 4.6795077
0.34701753 0.25216159 4.679409
-0.63984472 -0.46496904 5.5656767
-0.64010185 -0.46510255 5.5657678
-0.63982433 -0.46495542 5.5657158
-0.64012778 -0.46512797 5.565733
-0.63953716 -0.46474367 5.5656462
-0.64014447 -0.46516967 5.5657301
-1.8599792 -1.351211 5.5656157
-1.8600415 -1.3514442 5.5655699
-1.8598181 -1.3515116 5.5656691
-1.8597082 -1.3513737 5.565702
-1.8601049 -1.351717 5.5655532
-1.8594749 -1.3511436 5.5658317
-2.8468602 -2.0687971 4.6792021
-2.8467681 -2.0680766 4.6796122
-2.8465805 -2.0683634 4.6795864
-2.846658 -2.0683663 4.6795712
-2.846761 -2.068707 4.6792645
-2.8466902 -2.0685999 4.6794624
-3.223675 -2.3426263 3.2453179
-3.2237668 -2.3425877 3.2453167
-3.2238383 -2.3424215 3.2452986
-3.2238688 -2.3425863 3.2451305
-3.223614 -2.3424981 3.2455475
-3.2237918 -2.3426239 3.2450597
-0.57793343 -0.4199315 4.3079634
-0.57770628 -0.41979724 4.3078966
-0.57777053 -0.41985455 4.3079929
-0.5778836 -0.41992885 4.3080215
-0.57789075 -0.41994739 4.3079381
-0.57763791 -0.41975164 4.3078294
-1.5651599 -1.1372929 5.1941638
-1.5647119 -1.1370618 5.1942139
-1.564859 -1.1371423 5.1943321
-1.5648408 -1.1370403 5.1941524
-1.5647167 -1.1370045 5.1943002
-1.5646331 -1.1368734 5.1943784
-2.7844758 -2.0233302 5.1943588
-2.7847028 -2.0235305 5.1941872
-2.7844636 -2.0228064 5.194375
-2.7845931 -2.0231972 5.1943555
-2.7847695 -2.0232859 5.1942358
-2.7844272 -2.0234005 5.1944299
-3.7711856 -2.7404885 4.308403
-3.7718816 -2.7400832 4.308033
-3.7718232 -2.7404323 4.3078561
-3.7715549 -2.7405646 4.3079433
-3.7720084 -2.7403557 4.3076653
-3.7715194 -2.7406421 4.3080335
-4.1483088 -3.0145171 2.8746073
-4.1486797 -3.0144849 2.8734937
-4.1489339 -3.0143769 2.8733761
-4.1487384 -3.0144825 2.8737462
-4.1484804 -3.0145934 2.8740077
-4.1486645 -3.0146177 2.8735666
-3.7717144 -2.7407479 1.4398711
-3.7719021 -2.7404997 1.4398623
-3.7717779 -2.7406492 1.4392322
-3.7720666 -2.7402749 1.4399706
-3.7719355 -2.7404006 1.4397618
-3.7717106 -2.7407482 1.4393392
-2.1366806 -1.5522434 4.2217302
-2.1365235 -1.5521364 4.2218943
-2.1362984 -1.5523759 4.2217879
-2.1365061 -1.5524507 4.2217731
-2.136518 -1.5524961 4.2217503
-2.1363478 -1.5523993 4.2218614
-3.3560371 -2.4386294 4.2221227
-3.3562646 -2.4388547 4.2217951
-3.3565202 -2.439136 4.2214003
-3.3563623 -2.4388022 4.2217574
-3.3557882 -2.4386084 4.222096
-3.3561065 -2.4386365 4.2219052
-4.3430548 -3.1559417 3.3356814
-4.3432193 -3.1560643 3.3352673
-4.3434534 -3.155519 3.3354902
-4.343328 -3.1562345 3.3349328
-4.3433614 -3.1556995 3.3355076
-4.3435016 -3.1558897 3.3351045
-4.7201052 -3.4299228 1.9016793
-4.7201004 -3.429996 1.9015703
-4.72018 -3.4300199 1.9007857
-4.7207155 -3.4290948 1.9016052
-4.7203364 -3.4296119 1.9019755
-4.7201514 -3.430021 1.9010665
-4.3434744 -3.1557605 0.46750075
-4.3433952 -3.155901 0.46724483
-4.343307 -3.1561615 0.46725276
-4.3434858 -3.1559935 0.46756086
-4.3432765 -3.1561608 0.46743798
-4.3433132 -3.1559739 0.46746039
-3.3565409 -2.4389243 3.019448
-3.3563313 -2.4387939 3.0198343
-3.3562295 -2.438756 3.0199151
-3.3563316 -2.4385052 3.0201325
-3.356616 -2.4386764 3.0195513
-3.3563759 -2.4389873 3.0196128
-4.3431811 -3.1558812 2.1336861
-4.3433218 -3.1556525 2.1335723
-4.3432431 -3.1560485 2.1332457
-4.3437371 -3.155524 2.1331506
-4.3431125 -3.1560414 2.1334872
-4.3437643 -3.155354 2.1335452
-4.720315 -3.4299903 0.6999926
-4.7201843 -3.4300301 0.69933236
-4.7204537 -3.4296784 0.69918782
-4.7204099 -3.4298146 0.69972867
-4.720365 -3.429868 0.69946575
-4.7202187 -3.4301198 0.70007133
1.8028147 5.5492845 0.69877666
1.8028047 5.5494041 0.6998955
1.802508 5.5494313 0.69937044
1.8034791 5.5490727 0.69892621
1.8027253 5.5494008 0.69967157
1.8026111 5.5494232 0.69937515
1.6587929 5.1060896 2.1336701
1.6592278 5.1060119 2.133358
1.6591798 5.1058559 2.1339872
1.6586374 5.1062298 2.1332495
1.6589018 5.1062155 2.1330388
1.6591206 5.1060991 2.1331916
1.2816008 3.9456396 3.0200398
1.2817338 3.9457662 3.0198834
1.2821622 3.9456487 3.0199075
1.2817953 3.9459915 3.0196674
1.2818387 3.9457967 3.019897
1.2821047 3.9458592 3.0196426
1.6587697 5.1061835 0.46709919
1.6588548 5.106329 0.4676019
1.6588132 5.1061683 0.46728036
1.6593486 5.1059146 0.46693122
1.6589574 5.1062722 0.46773019
1.6586868 5.1062169 0.46715397
1.8035998 5.5490575 1.9011734
1.8035932 5.5490718 1.9008735
1.8026479 5.5493255 1.9015673
1.8035513 5.5490279 1.9016174
1.8025085 5.5494046 1.9011906
1.8033155 5.5491366 1.9010535
1.6585885 5.1059628 3.3357491
1.6590203 5.1062288 3.3350148
1.6589192 5.1059475 3.3355117
1.6586553 5.1061153 3.3354294
1.6588632 5.1060653 3.3354135
1.6592287 5.1059361 3.3354428
1.2817268 3.9458988 4.2218027
1.2818962 3.9458292 4.2217517
1.282202 3.9454162 4.221981
1.282221 3.9458356 4.2215796
1.2820206 3.9453371 4.2221761
1.2818805 3.9458971 4.221734
0.81613421 2.5113292 4.2219486
0.81599367 2.5117347 4.2217965
0.81576157 2.5114298 4.2217269
0.81619477 2.5114093 4.2219396
0.81613672 2.5117261 4.221797
0.81608129 2.5116472 4.2217798
1.4403608 4.4343185 1.4394097
1.4404298 4.4342422 1.4396635
1.4403259 4.4342041 1.4394563
1.4408247 4.4341154 1.4392866
1.440805 4.434093 1.4396571
1.4404066 4.4342217 1.4395059
1.5848346 4.8771863 2.8738053
1.5848948 4.877131 2.8739927
1.5842682 4.8773704 2.8737459
1.5851105 4.8770313 2.8736806
1.5850661 4.8770466 2.8738306
1.584325 4.8774114 2.8736722
1.4403056 4.4342141 4.3078289
1.4410329 4.4338384 4.3078718
1.4410864 4.4340386 4.3077273
1.4404572 4.4335933 4.3083749
1.4404414 4.4342494 4.3076458
1.4403834 4.4339771 4.3080163
1.063704 3.2737801 5.194263
1.0635952 3.2730591 5.1946006
1.0633761 3.2736771 5.1943307
1.0636401 3.2738442 5.1942053
1.0634274 3.2734108 5.1943603
1.0637184 3.2739928 5.1941357
0.59777838 1.839242 5.1943164
0.59770507 1.8397924 5.194201
0.59790266 1.8397964 5.1941361
0.5976913 1.8398117 5.1942039
0.59748775 1.8389238 5.1941776
0.59761161 1.8396336 5.1941538
0.22076587 0.67930073 4.3079009
0.22079882 0.67965817 4.3079481
0.22074844 0.6794771 4.3080182
0.22071639 0.67945832 4.3079219
0.22066677 0.6790809 4.307889
0.22067276 0.67928606 4.3078799
1.2311397 3.7901077 3.2452307
1.2314029 3.7901044 3.2450218
1.2311596 3.7900348 3.2452683
1.2314231 3.7900832 3.2451143
1.2311378 3.7901039 3.2451935
1.2312649 3.7900088 3.2452204
1.0871876 3.3466141 4.6795087
1.0871227 3.3464153 4.6796789
1.0876878 3.3465106 4.6794167
1.0873654 3.3464973 4.6795349
1.0877501 3.3469722 4.678997
1.0872566 3.3467252 4.6794581
0.7104072 2.1865563 5.5656481
0.71040249 2.1861899 5.5657945
0.7101596 2.1863444 5.5657125
0.71060073 2.1863799 5.5656924
0.71033961 2.1867905 5.5655446
0.71033257 2.1868041 5.5655117
0.2444106 0.75239438 5.5657339
0.24435087 0.7522791 5.5656238
0.24449646 0.75266957 5.5657506
0.24439943 0.75233394 5.5656819
0.24438484 0.75231922 5.5657296
0.24442106 0.75237656 5.565733
-0.13255495 -0.40795723 4.6794319
-0.13252804 -0.4079347 4.6794505
-0.13256481 -0.40809217 4.6793447
-0.13246988 -0.40771949 4.6794953
-0.13255346 -0.4078263 4.6794639
-0.13255075 -0.40806067 4.6792603
-0.27653056 -0.85119796 3.2453475
-0.27649859 -0.85109937 3.2453656
-0.27654287 -0.85121763 3.2452979
-0.27665177 -0.85116154 3.2452214
-0.27658245 -0.85125476 3.2451022
-0.27666062 -0.85125792 3.2452085
1.493173 4.5967422 0.63441557
1.4937313 4.5966511 0.63487697
1.4934489 4.5966725 0.63447922
1.4939489 4.5965014 0.63436371
1.4935699 4.5967488 0.63506424
1.4939792 4.5966148 0.6346522
1.3496373 4.1535769 2.0686743
1.3498859 4.1534548 2.0689797
1.3498281 4.1534095 2.0691187
1.3497778 4.1534038 2.0692275
1.3492507 4.1535544 2.0692677
1.3491824 4.153553 2.0693066
1.7123622 5.2684855 1.6075807
1.7122564 5.2684002 1.6071283
1.7122152 5.2684846 1.6072206
1.7122124 5.2685208 1.6071451
1.7115304 5.2687826 1.607255
1.7117758 5.2686009 1.6071229
1.5678601 4.8255777 3.0408058
1.5678172 4.8253527 3.0417056
1.5675489 4.8254895 3.0414445
1.5675037 4.82551 3.0412538
1.5677707 4.8257322 3.0405231
1.5678207 4.825376 3.041548
1.1909093 3.6652386 3.9277301
1.1909285 3.6649528 3.9280465
1.1905283 3.6653149 3.9276507
1.1910393 3.6651402 3.9277468
1.1906362 3.6654527 3.9275265
1.1907208 3.6650672 3.9279971
1.1911645 3.6652081 0.48868775
1.1911422 3.6651578 0.48874915
1.1910189 3.6649988 0.48845601
1.1907845 3.6653554 0.48867077
1.1909059 3.6653454 0.48882669
1.1907084 3.665395 0.48898435
1.5674933 4.8256211 1.3753207
1.5678614 4.8255076 1.3753428
1.5674071 4.8256125 1.3753015
1.5676634 4.8256435 1.3757174
1.5682309 4.8253798 1.3754553
1.5676285 4.8256149 1.3755088
1.7113967 5.2686753 2.8097763
1.711899 5.2684422 2.8098361
1.7118202 5.2684546 2.8100336
1.7122107 5.2683983 2.8097398
1.7115128 5.2688422 2.8085861
1.7122362 5.2684412 2.8097029
1.5675904 4.8255935 4.2432337
1.5674595 4.8250012 4.2442398
1.5676677 4.8252292 4.2438297
1.5682545 4.824996 4.2438855
1.5675573 4.8253593 4.2435727
1.5683167 4.8255448 4.242909
1.1907622 3.6648974 5.1300988
1.19038 3.6646552 5.130302
1.1908109 3.6648746 5.1299939
1.1910331 3.6647923 5.130105
1.1911659 3.6648276 5.1299138
1.190975 3.6651967 5.129755
0.72481179 2.2310593 5.1299
0.72488099 2.2306597 5.1300673
0.72505069 2.2309315 5.1297321
0.72467035 2.2307892 5.1299386
0.72464031 2.2305462 5.1300263
0.72503513 2.2309954 5.1299038
1.3491312 4.1535821 2.3477156
1.3491948 4.153635 2.3479323
1.3499547 4.1533241 2.3477616
1.3495253 4.1534324 2.3481307
1.3498654 4.1533895 2.3472366
1.3492857 4.1534877 2.3477411
1.4932671 4.5970135 3.7810316
1.4936848 4.596724 3.7815063
1.4934136 4.5968204 3.781497
1.4937215 4.5963092 3.7821589
1.4935508 4.5964389 3.782196
1.4938364 4.5964398 3.7820399
1.3496805 4.1533504 5.21591
1.349764 4.1533222 5.2159209
1.3496227 4.1534262 5.2158318
1.3494314 4.1532078 5.2161546
1.3496207 4.153439 5.2158313
1.3493662 4.153542 5.2158322
0.97233444 2.9934735 6.1021857
0.9724049 2.9927974 6.10254
0.97254276 2.9928141 6.1024895
0.97268671 2.9926181 6.1024399
0.97266316 2.9933653 6.1021061
0.97264957 2.9928117 6.1024089
0.50638735 1.5582947 6.1023912
0.50649136 1.5592868 6.1022439
0.50649297 1.5592422 6.1021409
0.50637853 1.5588135 6.1023283
0.50647891 1.5589175 6.1021628
0.50653511 1.5590711 6.1021271
0.12957713 0.39890626 5.2159066
0.1294169 0.39816922 5.2159758
0.12953059 0.39856881 5.2160549
0.12937577 0.39825922 5.2159901
0.12969641 0.39910093 5.2161078
0.12949726 0.39858064 5.2160521
1.1404085 3.5090539 4.1536169
1.1401159 3.5093555 4.153295
1.1405482 3.509058 4.1534185
1.1404668 3.5091736 4.1533942
1.14015 3.5090125 4.1536026
1.1398978 3.5092616 4.1535316
0.99620527 3.0668044 5.5868521
0.99650067 3.0659323 5.5874357
0.99602669 3.0661824 5.5873742
0.9959445 3.0656962 5.5877843
0.99613011 3.066365 5.5872364
0.99640721 3.065598 5.5877295
0.61928946 1.9060558 6.473702
0.61928052 1.9058839 6.4737124
0.61899281 1.9056448 6.473752
0.61925578 1.9063119 6.4736071
0.61897606 1.9056491 6.473815
0.61940324 1.9063801 6.4735889
0.15340149 0.47197452 6.4736552
0.15335603 0.47197279 6.4737659
0.15325724 0.47182822 6.4736991
0.15334751 0.47187528 6.4737759
0.15331571 0.47197366 6.4737382
0.15309723 0.47133523 6.4737577
-0.22375087 -0.68842775 5.587523
-0.22370234 -0.688604 5.5875068
-0.22374271 -0.68867648 5.5874209
-0.22369371 -0.68854195 5.5874057
-0.22371669 -0.68862778 5.5873208
-0.22359991 -0.68816209 5.5876403
-0.36771584 -1.1318806 4.1533961
-0.36767614 -1.1317339 4.153511
-0.36783406 -1.131951 4.1532927
-0.36769629 -1.1317309 4.153492
-0.36774251 -1.1318088 4.1529961
-0.36767876 -1.1318198 4.1535225
0.64294189 1.9786055 5.216095
0.6428442 1.9790167 5.2159166
0.64274913 1.9787993 5.2160225
0.64286119 1.9787531 5.2160683
0.64321989 1.9790096 5.2158427
0.64294708 1.9785064 5.2162004
0.26591414 0.81849712 6.1023707
0.26606873 0.81863457 6.1023293
0.26596111 0.81865102 6.1022983
0.26595259 0.81845897 6.1022906
0.26591387 0.8183493 6.1023207
0.26599514 0.81846941 6.1023331
-0.2000459 -0.6158157 6.1022644
-0.20013393 -0.61608493 6.1021905
-0.1999937 -0.61563045 6.1023717
-0.20009568 -0.61571771 6.1023235
-0.20012306 -0.6157276 6.1023092
-0.19997105 -0.61564589 6.1022925
-0.5769605 -1.7754022 5.2163239
-0.57681358 -1.7757947 5.2160525
-0.57686776 -1.7759595 5.2160921
-0.57705063 -1.7762226 5.2157016
-0.57704914 -1.7761289 5.2158198
-0.57684636 -1.7758564 5.2160368
-0.72127205 -2.2192552 3.7814691
-0.72115016 -2.2192304 3.7818456
-0.7211234 -2.2192328 3.7817168
-0.72101766 -2.218981 3.7821128
-0.72103548 -2.2192717 3.7815363
-0.7209211 -2.2192242 3.7815647
-0.57706541 -1.7759923 2.3476145
-0.57718986 -1.776103 2.3475335
-0.577088 -1.7761147 2.347713
-0.57706213 -1.7760442 2.3475971
-0.57707554 -1.7761015 2.3477943
-0.57724923 -1.7760446 2.3477862
1.3292946 4.0910091 0.73484939
1.328831 4.0910373 0.73469394
1.3292848 4.0907092 0.73390371
1.3295643 4.0906844 0.73448718
1.3292058 4.0908437 0.73475593
1.3295302 4.0908175 0.73441231
1.4728148 4.5341287 2.1685853
1.4731134 4.5339575 2.1682587
1.4730611 4.5338998 2.1689737
1.4727229 4.5340939 2.1681118
1.4731236 4.5339317 2.1685576
1.473052 4.534071 2.1682355
1.3292105 4.0904498 3.6031337
1.3293874 4.0905366 3.602819
1.3291037 4.0907083 3.6026952
1.3288933 4.0907164 3.6028981
1.3288527 4.0908704 3.6025546
1.3289884 4.0907812 3.6027756
0.95214242 2.9309936 4.4885526
0.95234275 2.9301004 4.489233
0.95202118 2.9309058 4.4886756
0.95190817 2.9304199 4.4891801
0.95191419 2.9303715 4.4891281
0.95237309 2.9306271 4.4888058
0.95207632 2.9307065 1.0500118
0.95249927 2.9305615 1.0501881
0.9521786 2.9308004 1.0504086
0.9519701 2.9307122 1.049836
0.95214605 2.9306159 1.0500102
0.95201343 2.9306409 1.0498509
1.3292543 4.090941 1.9362757
1.3288835 4.0910554 1.9363436
1.3287516 4.0906739 1.9363678
1.328999 4.090559 1.9361342
1.3288562 4.0909257 1.9362527
1.3288708 4.0907784 1.9365331
1.4729782 4.5339079 3.3702049
1.4734851 4.5338502 3.3705208
1.473061 4.534101 3.370095
1.4726737 4.5339332 3.370616
1.4735122 4.5338283 3.3707495
1.4728969 4.5338368 3.3711388
1.3293169 4.0905213 4.8047261
1.3294481 4.090497 4.8048763
1.3292917 4.0905409 4.8048925
1.3288583 4.0910201 4.8044519
1.3293082 4.0902505 4.8051844
1.3289433 4.090528 4.8050218
0.95221812 2.9305224 5.6908526
0.95240843 2.9302819 5.6911216
0.95189339 2.9303291 5.6911812
0.95211971 2.9299817 5.6913929
0.95216584 2.9300363 5.6913152
0.95248652 2.9307711 5.6907592
0.48618954 1.4966159 5.6909361
0.4863767 1.4964563 5.690938
0.48613203 1.4964147 5.6910686
0.48588112 1.4958961 5.6912313
0.48592946 1.4960002 5.6912613
0.48618919 1.4958855 5.6912642
1.1106631 3.4189019 2.9088078
1.110527 3.4188008 2.9093177
1.1110914 3.4188747 2.9084468
1.111107 3.4187956 2.9089563
1.1106967 3.4187257 2.9087806
1.1107382 3.4189951 2.9085391
1.2544771 3.8621523 4.3427439
1.2551525 3.8620911 4.3426719
1.2544366 3.8617725 4.3434978
1.2544327 3.8616323 4.3436179
1.2544667 3.8616028 4.3435898
1.2544341 3.8618731 4.3431816
1.1107756 3.4185863 5.7771368
1.1107547 3.4184046 5.7774181
1.1107593 3.418555 5.7772899
1.1108074 3.4193428 5.7765779
1.1112578 3.4189513 5.7768054
1.1110697 3.4193256 5.7765512
0.73390752 2.2581127 6.6636348
0.73371756 2.2587993 6.6633992
0.7337451 2.2585697 6.6634979
0.73364091 2.2584209 6.6635609
0.73364705 2.2582777 6.6636209
0.73378921 2.2590766 6.663208
0.26780978 0.82447273 6.6634398
0.26770088 0.82403427 6.6635981
0.26770952 0.82413441 6.6636147
0.26766616 0.82386911 6.6635985
0.26771295 0.82398111 6.6635671
0.26785082 0.82441622 6.6634889
-0.10927171 -0.3363511 5.7770596
-0.10923981 -0.33611089 5.7772388
-0.10895969 -0.33538753 5.7773352
-0.10932523 -0.33639911 5.7771149
-0.10921612 -0.33623266 5.7771688
-0.10914442 -0.33599642 5.7773085
0.90143579 2.7744973 4.7147179
0.90130162 2.7747433 4.714386
0.90145361 2.7748275 4.7143345
0.90160203 2.7742791 4.714746
0.90176988 2.7747614 4.7144103
0.90135485 2.7747376 4.7143326
0.75737429 2.3316047 6.1485982
0.75718248 2.331116 6.1488557
0.75753009 2.331213 6.1486135
0.7575593 2.3312819 6.1487331
0.75731766 2.3314512 6.1487279
0.75751042 2.3314197 6.1486578
0.38044602 1.1711141 7.0350013
0.38063216 1.1716344 7.0348644
0.38061064 1.171598 7.0348926
0.38046047 1.1711429 7.0349927
0.38044813 1.1710597 7.0349884
0.38067275 1.1714034 7.0348954
-0.085583471 -0.2633135 7.0349898
-0.08542674 -0.26293913 7.0349221
-0.085487217 -0.26317737 7.0350242
-0.085375987 -0.26270813 7.0349879
-0.08571054 -0.26381153 7.0348692
-0.085553959 -0.26338115 7.0348883
-0.46242785 -1.4232783 6.1487517
-0.46262205 -1.4234326 6.1486588
-0.46245307 -1.4232055 6.1486955
-0.46248111 -1.4237838 6.1484418
-0.46251202 -1.4234067 6.1485596
-0.46238032 -1.4234116 6.1484876
-0.60659504 -1.8663617 4.7146816
-0.60650253 -1.8666972 4.7145333
-0.60636193 -1.8668084 4.7144408
-0.60658765 -1.8663327 4.7147303
-0.60644066 -1.8663701 4.7145967
-0.60647613 -1.8663291 4.7144513
0.40425813 1.2439915 5.7772508
0.40432218 1.2447376 5.7770271
0.40414706 1.2436076 5.7773533
0.40431005 1.2442727 5.7771788
0.40445346 1.2446232 5.7770123
0.404394 1.2446717 5.7771182
0.027081545 0.083355062 6.6635323
0.027422713 0.084404714 6.6634121
0.027080839 0.083365805 6.6634007
0.027434964 0.084449545 6.6635103
0.027126789 0.083459526 6.6635542
0.02700787 0.083143793 6.6635451
-0.43888852 -1.35042 6.6635141
-0.43879315 -1.3509029 6.6632609
-0.43880841 -1.3506429 6.6633301
-0.43883261 -1.3501488 6.6636195
-0.43867201 -1.3496363 6.6637683
-0.43872619 -1.3501883 6.6634974
-0.8155672 -2.5099003 5.7777252
-0.81584579 -2.5104518 5.7772064
-0.81580865 -2.5103054 5.7774649
-0.81546062 -2.5103102 5.7774558
-0.815584 -2.5108879 5.7770319
-0.81556493 -2.5102384 5.7773824
-0.96001428 -2.9539857 4.342618
-0.95957655 -2.9537239 4.3432574
-0.95989066 -2.9538593 4.3429947
-0.95987701 -2.9539475 4.3426404
-0.95975769 -2.9535892 4.3431239
-0.9596886 -2.9540021 4.3426366
-0.81554615 -2.5107563 2.9089704
-0.81589222 -2.510612 2.9090633
-0.81588179 -2.5108035 2.9089069
-0.81576031 -2.5105457 2.9090052
-0.81571609 -2.5108593 2.9089155
-0.81568217 -2.5107801 2.909059
-0.19094774 -0.58769566 5.6911793
-0.1910999 -0.58828491 5.6911111
-0.19111431 -0.58837366 5.6911163
-0.19093792 -0.58782548 5.6911759
-0.19127701 -0.58852077 5.69101
-0.19099411 -0.58800447 5.6911292
-0.65719301 -2.022927 5.690731
-0.65717745 -2.0220928 5.6911736
-0.65712345 -2.0220387 5.6912599
-0.65726882 -2.0224946 5.6909032
-0.65670294 -2.0217721 5.6913629
-0.6569134 -2.0220661 5.691258
-1.0336512 -3.1823113 4.805038
-1.0340856 -3.18274 4.8046088
-1.0342327 -3.182729 4.8045292
-1.0343541 -3.1823759 4.8047895
-1.0342963 -3.1823978 4.8048458
-1.0338783 -3.18278 4.8046637
-1.1777638 -3.6259565 3.3706493
-1.1779249 -3.6260014 3.3703113
-1.1779321 -3.6256282 3.3708012
-1.1780773 -3.6258519 3.3704169
-1.1777506 -3.6258285 3.3708305
-1.1781281 -3.6259 3.370249
-1.0339715 -3.1828547 1.9363704
-1.0340387 -3.1827447 1.9367607
-1.034026 -3.1827986 1.9363678
-1.0338912 -3.182863 1.936736
-1.033989 -3.1828663 1.9363679
-1.0337731 -3.1826949 1.936218
-0.6569733 -2.0226359 1.0500165
-0.6571281 -2.0224748 1.0498247
-0.65712893 -2.0225422 1.0500695
-0.65702695 -2.0224564 1.0498079
-0.65719593 -2.0225768 1.0500084
-0.6572296 -2.0225849 1.0502518
0.65699852 2.0226297 1.0500222
0.65697849 2.0225432 1.0497732
0.65699989 2.0227032 1.050046
0.65702981 2.0226979 1.0500895
0.65702927 2.0225613 1.0501684
0.65695685 2.0225093 1.049908
1.0339485 3.1827738 1.9366268
1.0340265 3.1826892 1.9367417
1.0338225 3.1828251 1.9367812
1.0340872 3.1827242 1.9364042
1.0339534 3.1828296 1.9366112
1.0338451 3.1827683 1.9360106
1.1778613 3.6256778 3.3711083
1.1780533 3.6257949 3.3708205
1.1781845 3.6256363 3.3709903
1.1783079 3.625598 3.3705974
1.1781493 3.6255314 3.3713472
1.177898 3.6260324 3.3703823
1.033821 3.1825607 4.8048167
1.0339217 3.1830418 4.8042712
1.0339365 3.1825306 4.8047533
1.03408 3.1828566 4.8044214
1.0340147 3.1825922 4.8047237
1.033733 3.1823683 4.8050404
0.6573416 2.0224581 5.6909566
0.65694684 2.0219052 5.6913195
0.65723795 2.0222511 5.6910906
0.65720218 2.0223415 5.691062
0.65709436 2.0224586 5.6910439
0.65696102 2.0225468 5.6910024
0.1911474 0.58846003 5.6910529
0.19111347 0.588018 5.6910844
0.19104566 0.58811986 5.691164
0.19114859 0.58839005 5.6910429
0.19111511 0.58818901 5.6911273
0.19123088 0.58838433 5.6910472
0.81581557 2.5105102 2.9090018
0.81560361 2.510886 2.9089055
0.8159315 2.5105975 2.9090054
0.81550634 2.5106137 2.9091232
0.81594408 2.5106411 2.9091017
0.81603193 2.5107398 2.9088197
0.95993739 2.9536378 4.3433661
0.95984578 2.9534621 4.3435831
0.95986336 2.9537182 4.3431554
0.95954114 2.9540219 4.3427
0.95993203 2.9535959 4.3428688
0.95961827 2.9540508 4.3429585
0.81590056 2.5104034 5.7773347
0.81561655 2.5105731 5.7772851
0.81555533 2.5105014 5.7770667
0.81559914 2.5104494 5.7773919
0.81592196 2.5103846 5.7773356
0.81558049 2.5105171 5.7771354
0.43856514 1.349946 6.6636558
0.43853673 1.3498863 6.6637173
0.4388054 1.3504038 6.6634054
0.43898872 1.3507153 6.663384
0.43868273 1.3501999 6.6635847
0.43880519 1.3502423 6.6635246
-0.027154827 -0.083590619 6.6635089
-0.027450351 -0.084512003 6.6634994
-0.027243497 -0.083862618 6.6635528
-0.02715086 -0.083544791 6.6636052
-0.027182128 -0.083673134 6.663548
-0.027206533 -0.08375743 6.6635804
-0.40405649 -1.2439014 5.777266
-0.40396631 -1.2436225 5.777422
-0.40412563 -1.2438748 5.7773113
-0.4043878 -1.244719 5.7770085
-0.40421304 -1.244311 5.7772055
-0.40429929 -1.2444327 5.7771492
0.60663015 1.8669404 4.7142696
0.60657811 1.8665211 4.7142448
0.60628885 1.8665901 4.7145996
0.60671622 1.866938 4.7141356
0.60662562 1.8668975 4.7142186
0.60632563 1.8666452 4.7144399
0.46242195 1.4231396 6.1487203
0.46272716 1.4236997 6.1485338
0.46235186 1.423409 6.1487093
0.4624472 1.4237176 6.1483879
0.46243116 1.4230559 6.1486554
0.46259224 1.423463 6.1483827
0.085196644 0.26228973 7.0350256
0.085590169 0.26349074 7.0348735
0.085322566 0.26258376 7.0349793
0.085487768 0.26301554 7.0349517
0.085458338 0.2630195 7.0349679
0.085551791 0.2632134 7.0350027
-0.38075215 -1.1719733 7.0348001
-0.38081542 -1.1719996 7.0347929
-0.38054982 -1.1714288 7.0349302
-0.38066894 -1.1712166 7.0349336
-0.38047397 -1.1712304 7.034966
-0.38053319 -1.1712515 7.0349598
-0.7574327 -2.3318496 6.1484256
-0.75783253 -2.3317711 6.1484704
-0.75760818 -2.3309236 6.148869
-0.75773698 -2.3314743 6.1484294
-0.75766504 -2.3322637 6.1480789
-0.75738788 -2.3315563 6.1484747
-0.90182137 -2.774739 4.7143865
-0.90173513 -2.7745903 4.7144618
-0.9011631 -2.7742865 4.7149959
-0.90143573 -2.7748401 4.714325
-0.90180719 -2.7746735 4.7143393
-0.90172297 -2.7744153 4.7146831
0.10904801 0.33571717 5.7773113
0.10914288 0.33596894 5.7773056
0.10921057 0.33621439 5.7772102
0.10914601 0.33600825 5.7772412
0.1090885 0.33578506 5.7771678
0.10919218 0.33594462 5.7772346
-0.26776025 -0.82414806 6.6635356
-0.26786852 -0.82457304 6.6635265
-0.26777396 -0.82439274 6.6635561
-0.2677246 -0.82389921 6.6634936
-0.26787168 -0.82441103 6.6634588
-0.26775557 -0.8242141 6.6635742
-0.73396081 -2.258486 6.6634607
-0.73408318 -2.2585688 6.6634483
-0.73402941 -2.258703 6.6633611
-0.73391557 -2.2583625 6.663538
-0.73396343 -2.2590287 6.6632242
-0.73353744 -2.2580504 6.6637211
-1.1107117 -3.4188364 5.7771368
-1.110713 -3.418443 5.7773857
-1.1104699 -3.4184411 5.7774692
-1.1105148 -3.4187393 5.7771239
-1.110539 -3.4186153 5.7772427
-1.1106246 -3.4181938 5.7776613
-1.2546781 -3.8619695 4.3431144
-1.2545613 -3.8618288 4.3431878
-1.2549632 -3.8618703 4.3431506
-1.2548647 -3.8620987 4.3427644
-1.2546221 -3.8623171 4.3426614
-1.2547281 -3.861944 4.3429356
-1.1105614 -3.4188058 2.9087749
-1.1108762 -3.4186022 2.9093268
-1.110534 -3.4189334 2.9086878
-1.1110485 -3.4186332 2.9093339
-1.1107293 -3.4187608 2.9091396
-1.1107317 -3.4188395 2.908962
-0.48609346 -1.4965314 5.6910391
-0.48635328 -1.4964004 5.6910205
-0.48615974 -1.4964947 5.6909461
-0.48614466 -1.4961765 5.6911283
-0.4861013 -1.4960217 5.6911936
-0.48608142 -1.4962361 5.6910925
-0.95201641 -2.9300425 5.6913404
-0.95197344 -2.9304841 5.6910129
-0.95179486 -2.9300718 5.6913366
-0.95203668 -2.9304676 5.6911001
-0.95215797 -2.930408 5.6910629
-0.95184416 -2.9299951 5.6914377
-1.3294467 -4.0904217 4.8048286
-1.3286442 -4.0903926 4.8053198
-1.3290862 -4.0906773 4.8047528
-1.3288212 -4.090529 4.8050547
-1.3293328 -4.09026 4.8051963
-1.3292735 -4.0906591 4.8047037
-1.47299 -4.5337811 3.3706083
-1.473058 -4.5338202 3.3710854
-1.4728599 -4.5342097 3.3699768
-1.4734182 -4.5338416 3.3705523
-1.4733049 -4.5339274 3.3702426
-1.4730922 -4.5339975 3.3705797
-1.3295536 -4.0907531 1.9360442
-1.3295616 -4.0908022 1.9363714
-1.3291169 -4.090507 1.9362522
-1.3294885 -4.0905638 1.9363502
-1.3295581 -4.0907826 1.9365395
-1.3290023 -4.0907645 1.9365366
-0.95235705 -2.9305985 1.0500511
-0.95238245 -2.93065 1.0502263
-0.95202684 -2.9307542 1.0500795
-0.95193487 -2.9307261 1.0500823
-0.95225251 -2.9304554 1.0499103
-0.95194417 -2.9306452 1.0496439
-0.95186883 -2.9304848 4.4890718
-0.95189005 -2.9304368 4.4891653
-0.95241922 -2.9304006 4.4890795
-0.95203376 -2.9307241 4.4888821
-0.95231324 -2.9301288 4.489285
-0.95193779 -2.930654 4.4889712
-1.3289938 -4.0909023 3.6023993
-1.3289318 -4.0909142 3.6024432
-1.3288611 -4.0906134 3.6030319
-1.3293576 -4.0907993 3.6024506
-1.3289329 -4.0910807 3.602102
-1.3289195 -4.0906949 3.6029165
-1.4735374 -4.5337992 2.1688092
-1.4731629 -4.5340033 2.1678605
-1.472984 -4.5339723 2.1690819
-1.4733903 -4.5338545 2.1687241
-1.4728065 -4.5340233 2.1685541
-1.4727176 -4.5340767 2.168272
-1.3295437 -4.0908689 0.73450416
-1.329389 -4.0909686 0.73486364
-1.3291891 -4.0909972 0.73490351
-1.3289548 -4.090816 0.73451
-1.3289466 -4.0909944 0.73454583
-1.3295921 -4.0906954 0.73418999
0.57692218 1.776055 2.3479583
0.5771535 1.775946 2.3477561
0.5769394 1.7761776 2.3476572
0.57699865 1.7761556 2.3475418
0.57709301 1.7760241 2.3478987
0.57720709 1.7760004 2.3475852
0.72110462 2.2188394 3.7822278
0.72087747 2.2190399 3.7821529
0.72074676 2.2188742 3.7820117
0.72092122 2.21929 3.7817929
0.72076106 2.2190201 3.7821019
0.72096395 2.2191272 3.7819068
0.57717973 1.7759559 5.2159014
0.57690352 1.7757916 5.2160697
0.57705188 1.7761694 5.2156763
0.5770542 1.7757765 5.2159638
0.57720196 1.7758919 5.2159448
0.57688558 1.7759992 5.2160101
0.20017329 0.6160019 6.1021852
0.20000027 0.61539489 6.1023436
0.20009495 0.61573142 6.1023278
0.19996549 0.61560237 6.1022859
0.19994153 0.61534113 6.1023955
0.20006445 0.61588037 6.1022058
-0.26582384 -0.81832713 6.1023545
-0.26603326 -0.81861484 6.1023021
-0.26585522 -0.81816667 6.1023965
-0.26602963 -0.81853533 6.1023512
-0.26597986 -0.81858498 6.1023569
-0.26591873 -0.81853747 6.1023221
-0.64298296 -1.9784179 5.2161884
-0.64268231 -1.9785887 5.2161613
-0.64274186 -1.978799 5.2160144
-0.64299959 -1.9788703 5.2160444
-0.6428532 -1.9787651 5.2160416
-0.64303029 -1.978381 5.2162104
0.36775842 1.1318452 4.1535058
0.36777428 1.132193 4.1530333
0.36772281 1.1320226 4.1530952
0.36790717 1.1319529 4.1532464
0.36769313 1.1318016 4.1532984
0.36787307 1.131835 4.153285
0.22387765 0.68880683 5.5873084
0.22368883 0.68826407 5.5875978
0.2235197 0.6881519 5.5875955
0.22384948 0.68880242 5.587307
0.22380249 0.68873286 5.5874128
0.22378021 0.68858463 5.5874972
-0.15334103 -0.47204876 6.4736352
-0.15317646 -0.47140133 6.4737363
-0.15324079 -0.47172475 6.4737682
-0.15342511 -0.47218341 6.4738493
-0.15303472 -0.47102681 6.4736772
-0.15321866 -0.47140527 6.4737763
-0.619039 -1.9058375 6.473783
-0.61939698 -1.9057384 6.4738178
-0.61965567 -1.9066488 6.4734578
-0.61878699 -1.9049468 6.4740138
-0.61912608 -1.9052087 6.4739027
-0.61927074 -1.9056981 6.4738336
-0.99633449 -3.065814 5.5874643
-0.99618107 -3.0660131 5.5875463
-0.99610114 -3.0662773 5.5872893
-0.99623311 -3.066268 5.5873408
-0.9960466 -3.0658834 5.5875883
-0.99596804 -3.0662189 5.5873489
-1.1399195 -3.5093172 4.1533923
-1.1403412 -3.5093157 4.1531725
-1.1401247 -3.5094264 4.1532969
-1.1402949 -3.5093701 4.1532054
-1.1404557 -3.5088584 4.1536779
-1.1402278 -3.509135 4.1534243
-0.12951951 -0.39868045 5.216043
-0.12959319 -0.39874604 5.2161131
-0.12954219 -0.39866817 5.2160769
-0.12947807 -0.39843127 5.2159371
-0.12951174 -0.39863926 5.2160954
-0.12957899 -0.3989242 5.2159429
-0.50667048 -1.5588466 6.1023164
-0.50657117 -1.5589209 6.1023464
-0.50637788 -1.558789 6.1023169
-0.5065999 -1.5591594 6.1022258
-0.50646132 -1.5592152 6.1021519
-0.50647837 -1.5590769 6.1023355
-0.97233588 -2.9930534 6.1022115
-0.97261095 -2.9926412 6.1025639
-0.97248095 -2.9931915 6.1022701
-0.97243834 -2.9924531 6.1026139
-0.97257757 -2.9924502 6.102643
-0.97290623 -2.9933863 6.1021194
-1.3491133 -4.1528988 5.2165866
-1.3493761 -4.1531038 5.2162929
-1.3495897 -4.1536975 5.2155957
-1.349878 -4.1535344 5.2156243
-1.3495884 -4.1531892 5.2160969
-1.3495245 -4.1527014 5.2166429
-1.4932429 -4.596756 3.7814996
-1.4931344 -4.5966225 3.7820566
-1.4936681 -4.5966439 3.7818053
-1.4934564 -4.5966606 3.7816732
-1.4933929 -4.5965562 3.7820885
-1.4934336 -4.5964251 3.7823062
-1.3492271 -4.1535826 2.3480971
-1.3494779 -4.1536412 2.3471694
-1.3492186 -4.1536927 2.3474402
-1.3496051 -4.1534376 2.3477547
-1.3495828 -4.1534328 2.3479469
-1.3494036 -4.15347 2.3478985
-0.72479814 -2.2311876 5.1296549
-0.72502965 -2.2309024 5.1298847
-0.72473353 -2.2308195 5.130022
-0.72477609 -2.2308364 5.1300187
-0.72458386 -2.2307463 5.1300678
-0.72465533 -2.2307785 5.1299467
-1.1905565 -3.6652656 5.1298394
-1.1909677 -3.6649907 5.1298742
-1.1905193 -3.6651444 5.1299195
-1.1905862 -3.6648388 5.1300201
-1.191015 -3.6652753 5.1297369
-1.1908613 -3.6656439 5.1293583
-1.5680971 -4.825099 4.2437181
-1.5679364 -4.8255258 4.2431149
-1.5674936 -4.8256788 4.2430835
-1.5676638 -4.8254652 4.2434006
-1.5682027 -4.8252649 4.2434244
-1.5680249 -4.8250074 4.2439647
-1.7115555 -5.2686787 2.8093894
-1.7116076 -5.2687273 2.809
-1.7115901 -5.2686138 2.8095024
-1.7120137 -5.2684684 2.8094032
-1.711507 -5.2687774 2.8089919
-1.7117184 -5.2686963 2.8087502
-1.5677861 -4.8254194 1.3756241
-1.5677961 -4.8253837 1.3749214
-1.567866 -4.8254771 1.3749195
-1.5679199 -4.8254614 1.3754421
-1.5674241 -4.8255343 1.3753963
-1.5677255 -4.8255944 1.3752981
-1.190753 -3.6653917 0.48880622
-1.1907644 -3.6654925 0.48906079
-1.1906828 -3.6653278 0.48888415
-1.1906987 -3.6653082 0.48860767
-1.1907924 -3.6654801 0.48895895
-1.1910717 -3.665127 0.4883706
-1.1912279 -3.6650634 3.9278064
-1.1909852 -3.6649375 3.9280903
-1.1908571 -3.6651983 3.9276285
-1.1906614 -3.6651471 3.9277978
-1.1906254 -3.6653996 3.9276178
-1.1905454 -3.6650112 3.9281433
-1.5676352 -4.8254614 3.0414798
-1.5676544 -4.8253398 3.0418651
-1.5681161 -4.8254366 3.041337
-1.5674393 -4.8256488 3.0412927
-1.5673628 -4.8254824 3.0417457
-1.5675709 -4.8254414 3.0416973
-1.7121172 -5.2684855 1.60774
-1.7114118 -5.2687473 1.6074312
-1.7117985 -5.2686377 1.6076367
-1.712068 -5.2685289 1.6079139
-1.7117708 -5.2686486 1.6068426
-1.7122232 -5.268518 1.6075618
-1.3498403 -4.1533308 2.0692422
-1.349649 -4.1534066 2.0690284
-1.3492134 -4.1535854 2.0690172
-1.349369 -4.1536222 2.068676
-1.349133 -4.1535425 2.0691793
-1.3497249 -4.1534395 2.069231
-1.4937443 -4.5966907 0.63490105
-1.4939399 -4.59658 0.63469523
-1.493564 -4.5967546 0.6346938
-1.4935371 -4.596786 0.63483936
-1.4933081 -4.5968704 0.63499677
-1.4933507 -4.5968542 0.63518852
0.27662471 0.85108322 3.2453682
0.2765412 0.85114515 3.2453969
0.27665058 0.85118771 3.2452958
0.2765663 0.85112166 3.2453675
0.27648479 0.8511883 3.2451828
0.27652839 0.85127449 3.2450738
0.13249312 0.40779436 4.6794977
0.13251559 0.40796047 4.6794319
0.13254365 0.40785465 4.6794586
0.13253663 0.40782297 4.6793427
0.1325532 0.40799105 4.6792846
0.13260144 0.40814063 4.6792216
-0.24442893 -0.7525295 5.5657673
-0.24453364 -0.75241709 5.5656924
-0.24434163 -0.75210363 5.5656219
-0.24451151 -0.75233346 5.5655975
-0.24449509 -0.75242662 5.5656905
-0.24459209 -0.75256574 5.5657296
-0.71045363 -2.1865611 5.5656228
-0.71041203 -2.186172 5.5657868
-0.71038854 -2.1865215 5.5656924
-0.7105549 -2.18613 5.5657878
-0.71020657 -2.1864984 5.5657315
-0.71019167 -2.1861103 5.5657806
-1.0873048 -3.3465908 4.6795201
-1.0874832 -3.3466482 4.6794372
-1.0876145 -3.3467216 4.6793742
-1.0870925 -3.3466215 4.6795573
-1.0871783 -3.3467066 4.6794744
-1.0875982 -3.3470912 4.6789074
-1.231181 -3.7900739 3.2452445
-1.2317379 -3.7898486 3.2452414
-1.2312177 -3.7900562 3.2451842
-1.2313271 -3.7899673 3.2452676
-1.2315379 -3.7899826 3.2451904
-1.2311044 -3.7900803 3.2452548
-0.22063772 -0.67917591 4.3079443
-0.22056843 -0.67906648 4.3079209
-0.22073418 -0.67952418 4.3078852
-0.22062184 -0.67918116 4.3078508
-0.2207431 -0.67934954 4.3079815
-0.22061621 -0.67905003 4.307878
-0.59785426 -1.8395033 5.1941428
-0.59765124 -1.8396523 5.1943021
-0.59771067 -1.8390611 5.1941423
-0.59754324 -1.8396231 5.194346
-0.59778106 -1.8395883 5.1942081
-0.59770846 -1.8393341 5.1942258
-1.063387 -3.2736008 5.194396
-1.0640796 -3.2737875 5.1941819
-1.0633906 -3.273742 5.194294
-1.0636535 -3.2738383 5.1941977
-1.0635113 -3.2742422 5.194015
-1.0633351 -3.2734261 5.1944547
-1.4404274 -4.4342055 4.3077788
-1.4403342 -4.4341426 4.307878
-1.4406612 -4.433567 4.3083692
-1.4403982 -4.4338441 4.308218
-1.4404216 -4.4339819 4.308023
-1.4405228 -4.4339099 4.3081093
-1.5845796 -4.8774109 2.873477
-1.5851684 -4.8770547 2.8737507
-1.5846283 -4.8771276 2.8742046
-1.584818 -4.8769412 2.8744705
-1.5846312 -4.8772602 2.87391
-1.5849589 -4.8771482 2.8736458
-1.4406497 -4.434164 1.4396195
-1.4405217 -4.4342546 1.4397401
-1.4403776 -4.4342418 1.4398391
-1.4403795 -4.4341955 1.4397349
-1.4405607 -4.4342337 1.4399493
-1.4411501 -4.4340239 1.4397835
-0.81589979 -2.511699 4.2217903
-0.81599063 -2.5115223 4.2218719
-0.81594223 -2.511538 4.221777
-0.8160032 -2.5115256 4.2217727
-0.81576562 -2.5115225 4.2218328
-0.81618029 -2.5115967 4.2217631
-1.282122 -3.9455676 4.2220116
-1.2822793 -3.9459174 4.2216129
-1.2823951 -3.9458926 4.22153
-1.2817088 -3.9459586 4.2217054
-1.2818196 -3.9460447 4.2216206
-1.282439 -3.9456804 4.2217913
-1.6589479 -5.1060247 3.335377
-1.6595392 -5.1058049 3.3355677
-1.6593645 -5.1058855 3.3354323
-1.6585764 -5.1060567 3.3356271
-1.6590636 -5.1060095 3.3352571
-1.6591665 -5.1059346 3.3355076
-1.8034314 -5.5490503 1.9015032
-1.8025088 -5.5494061 1.9010162
-1.8030012 -5.5492182 1.9014722
-1.8027191 -5.5492597 1.9017239
-1.8032074 -5.5491648 1.9010561
-1.8024875 -5.5493298 1.9015448
-1.6589307 -5.1063638 0.46772438
-1.6586868 -5.1061821 0.4670637
-1.6588423 -5.1062851 0.46732309
-1.6593711 -5.1059937 0.46700805
-1.6593074 -5.1059928 0.46694979
-1.6587781 -5.1063056 0.46755636
-1.2819892 -3.9459879 3.0195854
-1.2820393 -3.945719 3.0197885
-1.2824436 -3.9456387 3.0198443
-1.2817587 -3.9458566 3.0197053
-1.2820356 -3.9458349 3.0198381
-1.282334 -3.9456627 3.0197818
-1.6586797 -5.1060762 2.133517
-1.6592215 -5.1059656 2.1335478
-1.6587077 -5.1061058 2.133642
-1.6585681 -5.1060615 2.1337049
-1.6595454 -5.1059608 2.1331353
-1.6586186 -5.1060076 2.1339073
-1.8034358 -5.5491633 0.6992836
-1.8035204 -5.5491815 0.69962913
-1.8032107 -5.5492334 0.69961578
-1.8027115 -5.5493479 0.69898462
-1.8035035 -5.5491982 0.69985521
-1.8029059 -5.5492797 0.6990115
-1.8026478 5.5494232 0.69952041
-1.8026791 5.5494266 0.69939667
-1.8032455 5.5491176 0.69865519
-1.8025339 5.5494132 0.69937569
-1.8025782 5.5493875 0.69917703
-1.8028353 5.5493703 0.69968021
-1.6590569 5.1060915 2.1333761
-1.6585857 5.1062503 2.1330681
-1.6586235 5.1061883 2.1335289
-1.6592311 5.1059422 2.1334107
-1.6593866 5.1058397 2.1338072
-1.6592255 5.1059279 2.1335151
-1.2822698 3.9459243 3.0194793
-1.2816802 3.9458389 3.0199332
-1.2823256 3.9457679 3.0197051
-1.2820517 3.9456623 3.0199409
-1.2820458 3.9459436 3.0195739
-1.2818255 3.9457765 3.019793
-1.6588867 5.1062689 0.46763363
-1.6589862 5.106257 0.46738958
-1.6594138 5.1059294 0.46701175
-1.6594733 5.1061893 0.4678551
-1.658718 5.106318 0.46733877
-1.6590235 5.1062417 0.46746612
-1.802827 5.5492187 1.9019138
-1.8030601 5.5491266 1.9020452
-1.802484 5.5493088 1.9018947
-1.8035017 5.5490537 1.9015756
-1.8032252 5.5491176 1.9017154
-1.8033606 5.5490904 1.9012182
-1.6587313 5.1062045 3.3352864
-1.6588424 5.1060195 3.3355527
-1.6591806 5.1059132 3.3354938
-1.6585432 5.1061368 3.3353455
-1.6586812 5.1061487 3.335428
-1.6587842 5.1060147 3.3354945
-1.2817218 3.9460773 4.2215261
-1.2819149 3.9456964 4.2218394
-1.2818415 3.9458029 4.2217731
-1.2824771 3.945781 4.2215638
-1.2820938 3.94557 4.2217746
-1.2819054 3.9459407 4.2217145
-0.81630009 2.5118201 4.2216916
-0.81605512 2.5117311 4.2218256
-0.81597614 2.5115585 4.221765
-0.81602645 2.5118015 4.2217164
-0.81577718 2.5114977 4.2218223
-0.81585163 2.5113769 4.2219701
-1.4403329 4.4342113 1.4395895
-1.4403749 4.4343104 1.4395171
-1.4411319 4.4339547 1.439574
-1.4404387 4.4342256 1.4393299
-1.4409665 4.4340844 1.439496
-1.4407114 4.4342084 1.4396477
-1.5844399 4.8772697 2.8739164
-1.5845401 4.8772569 2.8738668
-1.5844601 4.8773384 2.873883
-1.5843956 4.8773804 2.8737066
-1.5850396 4.8771086 2.8735893
-1.5846976 4.8772349 2.8739502
-1.4408337 4.4338293 4.3080969
-1.4402221 4.43396 4.3080845
-1.4403616 4.4340625 4.3079157
-1.4403367 4.4342289 4.3077855
-1.4401762 4.4337354 4.3083906
-1.4404343 4.434113 4.3078423
-1.0634749 3.2740409 5.19415
-1.0633699 3.2736971 5.1943121
-1.063486 3.2738025 5.1943169
-1.0639831 3.2735727 5.1942463
-1.063514 3.2735858 5.1943622
-1.0635284 3.2741737 5.1940174
-0.59770256 1.8398874 5.1942964
-0.59753764 1.8394942 5.1942034
-0.5974955 1.8393598 5.1942878
-0.59775853 1.839485 5.1942887
-0.59760422 1.8397751 5.1942973
-0.59767389 1.839751 5.1941423
-0.22078146 0.67928833 4.3079
-0.22072461 0.67939752 4.3079901
-0.22076684 0.67951244 4.3080258
-0.22065449 0.67932302 4.3078837
-0.22080766 0.67945933 4.3079019
-0.22080401 0.6794014 4.307888
-1.2312311 3.7900503 3.2452958
-1.2313207 3.7899799 3.2453518
-1.2310451 3.7900391 3.2453194
-1.2311475 3.7899632 3.2453177
-1.2311711 3.7900095 3.2453165
-1.231077 3.790024 3.2454033
-1.0870742 3.346576 4.6795931
-1.0870881 3.3465793 4.6795182
-1.0877482 3.3466153 4.6794014
-1.0874175 3.3467999 4.679286
-1.0877438 3.3468583 4.6791773
-1.0877041 3.3467648 4.6792283
-0.71022427 2.1864579 5.5657229
-0.71067959 2.1865275 5.5656395
-0.71035159 2.186456 5.5656614
-0.71024281 2.186631 5.5655942
-0.71076173 2.1868861 5.565474
-0.71023953 2.186341 5.565763
-0.24440591 0.7523551 5.5656252
-0.24440414 0.75217563 5.5656962
-0.24458216 0.75266218 5.5657172
-0.24458303 0.75258446 5.565752
-0.24430417 0.7520386 5.5655999
-0.2444631 0.75225097 5.5657368
0.1325278 -0.40798676 4.6794338
0.13250311 -0.40783578 4.6794801
0.13259777 -0.40803584 4.6793208
0.13253722 -0.4079715 4.679388
0.13248174 -0.4076333 4.6795497
0.13259704 -0.40803534 4.6792846
0.27649474 -0.85122192 3.245271
0.27664226 -0.85133535 3.2450926
0.27652737 -0.85124642 3.2453091
0.27659556 -0.8510716 3.2454057
0.27650335 -0.85124117 3.2452354
0.27649093 -0.85122842 3.2452769
-1.4934511 4.5967836 0.63491493
-1.493126 4.5969043 0.63498944
-1.493956 4.596662 0.63521338
-1.4933367 4.5967679 0.63481426
-1.4938463 4.5965629 0.63500434
-1.4939461 4.5966487 0.63506043
-1.3493524 4.1535959 2.0690074
-1.3498349 4.1534395 2.0689645
-1.3492677 4.1535926 2.069154
-1.3495631 4.1535282 2.069031
-1.3492612 4.1535792 2.0692513
-1.3497751 4.1534133 2.0691228
-1.7121962 5.2684865 1.6071185
-1.7115204 5.2687621 1.6070061
-1.711373 5.2687855 1.6065593
-1.7120064 5.2686114 1.6073734
-1.7117543 5.2686906 1.6072129
-1.7119248 5.2686086 1.607882
-1.5675559 4.8251553 3.0421426
-1.5681727 4.8250866 3.0419772
-1.5678977 4.8256445 3.040962
-1.5680174 4.8251309 3.0419838
